-40.1895   -240.074   387.49  
-50.9051   -171.883   624.952  
-331.149   -205.362   750.699  
63.7401   -92.114   385.357  
-130.228   -86.1448   416.912  
-317.47   -69.5899   490.977  
-180.633   -3.10682   106.654  
-231.405   14.8587   262.08  
-502.348   -19.9609   324.062  
-199.616   54.9719   286.422  
-60.0222   158.348   289.507  
-118.031   105.093   412.693  
-430.824   115.309   453.166  
-345.844   83.4368   381.103  
-232.817   -63.9565   753.927  
-387.548   -206.999   785.161  
-522.432   -189.214   884.003  
-374.634   -70.1925   540.582  
-492.496   -52.4166   607.057  
-488.322   152.3   603.512  
-561.444   156.766   735.457  
-499.811   132.674   721.374  
-484.755   243.731   671.249  
-603.221   247.73   786.382  
-631.138   -160.286   966.51  
-625.297   -39.7176   1017.23  
-771.947   -24.082   1202.06  
-550.476   15.8414   885.78  
-792.108   9.93877   828.493  
-751.295   79.4924   926.762  
-652.052   205.382   988.12  
-986.866   156.49   716.594  
-753.621   170.426   1139.69  
384.285   -50.3596   390.272  
206.307   -70.9633   372.116  
272.595   22.4381   388.578  
395.932   47.5593   373.694  
241.404   19.8177   312.261  
-40.1895   -680.074   387.49  
-331.149   -605.362   750.699  
-284.93   -119.023   870.808  
-398.551   -50.0915   1027.05  
-363.261   27.5594   1141.66  
198.42   -105.139   618.736  
128.402   -41.606   446.874  
81.1933   48.714   301.719  
144.633   167.107   327.654  
254.017   158.931   547.961  
-14.4033   313.362   580.168  
-326.2   364.753   507.925  
-445.933   375.566   565.152  
-365.374   379.964   579.282  
-727.965   231.947   694.815  
-863.785   300.546   1041.86  
-19.2746   -140.452   470.007  
-202.86   -118.59   554.834  
-71.3827   -48.4959   322.494  
-269.231   -38.313   382.355  
-779.65   100.195   1066.06  
324.418   -34.2113   644.423  
-377.548   -46.9991   780.161  
-472.432   -36.2142   774.003  
-315.698   446.565   793.236  
-269.809   368.783   633.838  
-380.141   374.533   692.038  
100.022   808.349   100.507  
-436.824   565.309   553.166  
