  500.36140  -480.02353    21.49201
   12.71163  -465.28643    40.76885
 -193.53790  -388.63542    21.31418
    9.26659  -366.50773  -257.87217
  276.18372  -317.31307  -588.40027
   54.58808  -351.53222  -644.67298
 -189.69354  -360.17017  -639.48918
 -350.77201  -234.82005   179.49612
 -466.54293  -215.03999   212.92079
 -592.01338  -191.22500   253.63035
 -311.52239  -264.33301  -322.23272
 -745.75181  -382.19470  -761.93044
 -500.51652  -213.84783  -454.18632
 -390.46095   -39.28649  -202.92811
 -624.63357   -44.48202  -201.46024
 -393.86883   229.64384  -230.04628
 -633.96375   224.50590  -228.88695
 -508.59734    85.35170  -214.26267
-1002.21201  -377.84348    17.11850
-1179.42411  -336.58835    72.44855
-1361.48512  -322.08659  -505.58741
 -918.72731  -366.53275  -629.45470
-1057.68509  -369.68060  -241.07284
-1274.13127  -342.26348  -193.94307
-1623.68373  -197.85927  -303.07941
-1765.30811  -149.16076  -236.80821
-1769.68013   -79.47040  -269.67573
-1637.13238  -113.00302  -341.15007
-1692.24932  -138.06771  -286.74528
  700.73109  -174.50744  -335.13188
  710.39404   -82.10998  -380.05394
 1059.00020  -137.96054  -566.06636
 1005.88501  -206.40571  -467.78450
  836.76088  -143.01186  -414.32791
 -143.61046   -65.14842  -285.97749
  193.85467   179.83269   -63.92031
 -209.18798   201.69735   -92.50625
  138.35173   -59.88935  -283.73228
  -12.86496   105.39131   -53.48125
   -1.58595   -46.72613  -291.28674
   34.35826    28.12739   889.72650
 -348.24031  -352.76656  -794.19031
  404.18222  -302.76435  -760.80842
   34.35826    28.12739   889.72650
-1293.06187   471.04747  -914.70706
  128.14795  -356.29143  -117.04072
 -121.54394  -380.62445  -136.35472
  173.07171  -335.63009  -422.62600
 -120.79102  -369.88420  -469.97767
 -124.00736   459.26504  -344.36846
  -44.10152  -161.80068   486.44764
 -507.27788  -241.94008   354.17020
 -946.47264  -234.93709   435.08606
-1265.07045  -247.31263   276.82857
-1288.60670  -229.06642   -15.71701
-1414.71198   411.54054   -32.43128
  451.49830   355.33686  -111.55992
  347.76228  -187.00759    34.22770
  239.84254  -335.07350  -264.82154
 -225.26561  -382.78578  -309.65761
 -384.91100  -386.42097  -362.48343
 -596.58501  -391.89049  -377.88394
-1079.39859    54.00826  -287.81531
  350.77201  -234.82005   179.49612
  347.76228  -700.00759    34.22770
  300.36140  -700.02353    40.49201
   12.71163  -720.28643    40.76885
  -300.53790  -700.63542    21.31418
  -12.86496   50.39131   -53.48125
  350.77201  -500.82005   179.49612 
  393.86883   229.64384  -230.04628
1769.68013   -79.47040  -269.67573
  200.36140  -700.02353    21.49201
   12.71163  -700.28643    40.76885
 -193.53790  -700.63542    21.31418
  393.86883   229.64384  -230.04628
 -350.77201  -500.82005   179.49612
